ply
format ascii 1.0
element vertex 1063
property float x
property float y
property float z
property uchar red
property uchar green
property uchar blue
end_header
184.299759 -86.341774 67.290939 255 255 255
184.217072 -86.275284 67.288277 255 255 255
184.129547 -86.204903 67.285454 255 255 255
184.036682 -86.130219 67.282463 255 255 255
183.937897 -86.050781 67.279274 255 255 255
183.832550 -85.966064 67.275879 255 255 255
183.719894 -85.875473 67.272247 255 255 255
183.601517 -85.780289 67.269958 255 255 255
183.486389 -85.687706 67.274986 255 255 255
183.363403 -85.588806 67.280357 255 255 255
183.231689 -85.482887 67.286125 255 255 255
183.090149 -85.369072 67.292336 255 255 255
183.082275 -85.362740 67.373833 255 255 255
183.071625 -85.354172 67.453186 255 255 255
182.903152 -85.218689 67.458473 255 255 255
182.727936 -85.077797 67.468239 255 255 255
182.562302 -84.944595 67.489662 255 255 255
182.384308 -84.801468 67.513390 255 255 255
182.207947 -84.659637 67.545403 255 255 255
182.017181 -84.506233 67.580017 255 255 255
181.751389 -84.292503 67.598930 255 255 255
181.204987 -83.853104 67.546776 255 255 255
180.820511 -83.543938 67.563370 255 255 255
180.341599 -83.158806 67.573570 255 255 255
179.776108 -82.704071 67.585609 255 255 255
179.097702 -82.158531 67.600044 255 255 255
178.867142 -81.973129 67.724869 255 255 255
178.686584 -81.827927 67.867203 255 255 255
178.578995 -81.741409 68.026756 255 255 255
178.578995 -81.741409 68.202477 255 255 255
178.578995 -81.741409 68.377663 255 255 255
178.578995 -81.741409 68.552437 255 255 255
177.885315 -81.183601 68.696709 255 255 255
177.885315 -81.183594 68.886497 255 255 255
177.885315 -81.183594 69.076187 255 255 255
177.885315 -81.183594 69.265877 255 255 255
177.885315 -81.183594 69.455696 255 255 255
177.885315 -81.183601 69.645752 255 255 255
177.885315 -81.183594 69.836159 255 255 255
177.885315 -81.183594 70.027039 255 255 255
177.885315 -81.183594 70.218506 255 255 255
177.885315 -81.183601 70.410690 255 255 255
177.885315 -81.183601 70.603706 255 255 255
177.885330 -81.183601 70.797676 255 255 255
177.885315 -81.183594 70.992729 255 255 255
177.887268 -81.185143 71.188515 255 255 255
177.887131 -81.185051 71.386108 255 255 255
178.014496 -81.287476 71.547249 255 255 255
178.014496 -81.287476 71.744888 255 255 255
178.014496 -81.287476 71.944267 255 255 255
178.014496 -81.287476 72.145531 255 255 255
178.014496 -81.287476 72.348824 255 255 255
178.014496 -81.287476 72.554314 255 255 255
178.014496 -81.287476 72.762146 255 255 255
178.014496 -81.287476 72.972504 255 255 255
178.014496 -81.287476 73.185562 255 255 255
178.014496 -81.287476 73.401497 255 255 255
186.281342 -87.937332 67.341782 255 255 255
186.257477 -87.918823 67.341904 255 255 255
186.233582 -87.900276 67.342018 255 255 255
186.209595 -87.881676 67.342140 255 255 255
186.185532 -87.863007 67.342262 255 255 255
186.161377 -87.844261 67.342384 255 255 255
186.137085 -87.825424 67.342514 255 255 255
186.112686 -87.806488 67.342636 255 255 255
186.088120 -87.787430 67.342758 255 255 255
186.063400 -87.768250 67.342880 255 255 255
186.038483 -87.748924 67.343010 255 255 255
186.013382 -87.729454 67.343140 255 255 255
185.988068 -87.709808 67.343269 255 255 255
185.962509 -87.689980 67.343391 255 255 255
185.936523 -87.669823 67.342827 255 255 255
185.910172 -87.649376 67.341942 255 255 255
185.883484 -87.628670 67.341049 255 255 255
185.856445 -87.607697 67.340141 255 255 255
185.829025 -87.586426 67.339218 255 255 255
185.801208 -87.564842 67.338287 255 255 255
185.772964 -87.542931 67.337334 255 255 255
185.744263 -87.520668 67.336372 255 255 255
185.715088 -87.498032 67.335396 255 255 255
185.685394 -87.474991 67.334396 255 255 255
185.655151 -87.451530 67.333382 255 255 255
185.624329 -87.427620 67.332344 255 255 255
185.592896 -87.403229 67.331291 255 255 255
185.560791 -87.378326 67.330208 255 255 255
185.528000 -87.352890 67.329109 255 255 255
185.494476 -87.326874 67.327980 255 255 255
185.460159 -87.300255 67.326828 255 255 255
185.425003 -87.272980 67.325653 255 255 255
185.388962 -87.245018 67.324440 255 255 255
185.351974 -87.216324 67.323196 255 255 255
185.313980 -87.186852 67.321922 255 255 255
185.274918 -87.156540 67.320610 255 255 255
185.234695 -87.125343 67.319260 255 255 255
185.193268 -87.093201 67.317863 255 255 255
185.150528 -87.060043 67.316429 255 255 255
185.106400 -87.025810 67.314949 255 255 255
185.060791 -86.990417 67.313416 255 255 255
185.013580 -86.953789 67.311829 255 255 255
184.964645 -86.915833 67.310188 255 255 255
184.913879 -86.876450 67.308487 255 255 255
184.861130 -86.835526 67.306709 255 255 255
184.806259 -86.792953 67.304871 255 255 255
184.749084 -86.748604 67.302948 255 255 255
184.689438 -86.702324 67.300949 255 255 255
184.627106 -86.653969 67.298851 255 255 255
184.561859 -86.603348 67.296661 255 255 255
184.493439 -86.550270 67.294350 255 255 255
184.421585 -86.494514 67.291924 255 255 255
184.345963 -86.435852 67.289368 255 255 255
184.266235 -86.373993 67.286682 255 255 255
184.181992 -86.308640 67.283836 255 255 255
184.092789 -86.239441 67.280823 255 255 255
183.998138 -86.166000 67.277626 255 255 255
183.897415 -86.087868 67.274231 255 255 255
183.789993 -86.004532 67.270599 255 255 255
183.675095 -85.915382 67.266724 255 255 255
183.557037 -85.823799 67.265923 255 255 255
183.439774 -85.732826 67.270798 255 255 255
183.314499 -85.635635 67.276001 255 255 255
183.180298 -85.531517 67.281601 255 255 255
183.055893 -85.435005 67.298248 255 255 255
183.055573 -85.434753 67.383377 255 255 255
183.015640 -85.403778 67.448143 255 255 255
182.843781 -85.270439 67.453209 255 255 255
182.670685 -85.136154 67.465233 255 255 255
182.502136 -85.005394 67.486572 255 255 255
182.323776 -84.867020 67.511299 255 255 255
182.144455 -84.727913 67.543259 255 255 255
181.950485 -84.577423 67.577827 255 255 255
181.673859 -84.362808 67.594643 255 255 255
181.074875 -83.898117 67.529724 255 255 255
180.725891 -83.627380 67.558609 255 255 255
180.233109 -83.245064 67.567444 255 255 255
179.654816 -82.796425 67.578964 255 255 255
178.960541 -82.257805 67.592789 255 255 255
178.806915 -82.138618 67.732582 255 255 255
178.580139 -81.962685 67.867203 255 255 255
178.516296 -81.913155 68.032715 255 255 255
178.516296 -81.913147 68.207428 255 255 255
178.516296 -81.913155 68.381607 255 255 255
178.516296 -81.913155 68.555374 255 255 255
177.817200 -81.370789 68.698830 255 255 255
177.817184 -81.370789 68.887527 255 255 255
177.817184 -81.370781 69.076126 255 255 255
177.817184 -81.370789 69.264725 255 255 255
177.817184 -81.370781 69.453445 255 255 255
177.817184 -81.370789 69.642410 255 255 255
177.817184 -81.370781 69.831718 255 255 255
177.817184 -81.370781 70.021500 255 255 255
177.817184 -81.370781 70.211868 255 255 255
177.817184 -81.370789 70.402946 255 255 255
177.817184 -81.370781 70.594849 255 255 255
177.817184 -81.370789 70.787704 255 255 255
177.817184 -81.370781 70.981628 255 255 255
177.819153 -81.372299 71.176285 255 255 255
177.819046 -81.372208 71.372742 255 255 255
177.947403 -81.471809 71.532959 255 255 255
177.947403 -81.471809 71.729462 255 255 255
177.947403 -81.471809 71.927696 255 255 255
177.947403 -81.471809 72.127800 255 255 255
177.947403 -81.471809 72.329926 255 255 255
177.947403 -81.471809 72.534225 255 255 255
177.947403 -81.471809 72.740860 255 255 255
177.947403 -81.471809 72.950005 255 255 255
177.947403 -81.471809 73.161835 255 255 255
177.947403 -81.471809 73.376534 255 255 255
186.280350 -87.938606 67.341652 255 255 255
186.256180 -87.920517 67.341728 255 255 255
186.231949 -87.902382 67.341812 255 255 255
186.207642 -87.884201 67.341888 255 255 255
186.183243 -87.865952 67.341972 255 255 255
186.158752 -87.847618 67.342049 255 255 255
186.134140 -87.829201 67.342133 255 255 255
186.109390 -87.810684 67.342209 255 255 255
186.084488 -87.792053 67.342293 255 255 255
186.059418 -87.773293 67.342377 255 255 255
186.034164 -87.754395 67.342461 255 255 255
186.008698 -87.735344 67.342545 255 255 255
185.983017 -87.716133 67.342628 255 255 255
185.957108 -87.696739 67.342712 255 255 255
185.930725 -87.677010 67.342003 255 255 255
185.903992 -87.657005 67.341064 255 255 255
185.876923 -87.636749 67.340118 255 255 255
185.849487 -87.616219 67.339157 255 255 255
185.821671 -87.595413 67.338181 255 255 255
185.793457 -87.574295 67.337189 255 255 255
185.764801 -87.552849 67.336189 255 255 255
185.735672 -87.531059 67.335167 255 255 255
185.706055 -87.508904 67.334129 255 255 255
185.675919 -87.486351 67.333069 255 255 255
185.645218 -87.463387 67.331993 255 255 255
185.613937 -87.439980 67.330894 255 255 255
185.582031 -87.416100 67.329773 255 255 255
185.549438 -87.391724 67.328636 255 255 255
185.516144 -87.366814 67.327469 255 255 255
185.482101 -87.341339 67.326271 255 255 255
185.447266 -87.315262 67.325050 255 255 255
185.411560 -87.288559 67.323799 255 255 255
185.374954 -87.261169 67.322510 255 255 255
185.337387 -87.233063 67.321198 255 255 255
185.298798 -87.204185 67.319839 255 255 255
185.259109 -87.174492 67.318451 255 255 255
185.218262 -87.143921 67.317017 255 255 255
185.176163 -87.112427 67.315544 255 255 255
185.132736 -87.079933 67.314018 255 255 255
185.087891 -87.046379 67.312447 255 255 255
185.041534 -87.011688 67.310822 255 255 255
184.993546 -86.975784 67.309135 255 255 255
184.943802 -86.938568 67.307388 255 255 255
184.892181 -86.899948 67.305580 255 255 255
184.838562 -86.859818 67.303703 255 255 255
184.782761 -86.818069 67.301743 255 255 255
184.724609 -86.774567 67.299706 255 255 255
184.663940 -86.729164 67.297577 255 255 255
184.600525 -86.681717 67.295349 255 255 255
184.534134 -86.632042 67.293022 255 255 255
184.464508 -86.579948 67.290565 255 255 255
184.391357 -86.525223 67.287987 255 255 255
184.314392 -86.467621 67.285278 255 255 255
184.233200 -86.406883 67.282417 255 255 255
184.147415 -86.342697 67.279396 255 255 255
184.056580 -86.274727 67.276192 255 255 255
183.960129 -86.202568 67.272789 255 255 255
183.857513 -86.125778 67.269173 255 255 255
183.748016 -86.043854 67.265320 255 255 255
183.630875 -85.956200 67.261185 255 255 255
183.513168 -85.868134 67.261841 255 255 255
183.393784 -85.778809 67.266556 255 255 255
183.266220 -85.683365 67.271599 255 255 255
183.129532 -85.581093 67.277008 255 255 255
183.029495 -85.506241 67.307640 255 255 255
183.029160 -85.505989 67.392303 255 255 255
182.960266 -85.454445 67.443031 255 255 255
182.773026 -85.314354 67.442451 255 255 255
182.614075 -85.195419 67.462105 255 255 255
182.442612 -85.067131 67.483360 255 255 255
182.263901 -84.933411 67.509048 255 255 255
182.081650 -84.797050 67.540955 255 255 255
181.884476 -84.649513 67.575478 255 255 255
181.597183 -84.434555 67.590294 255 255 255
0.000000 0.000000 0.000000 0 0 0
180.635880 -83.715286 67.554733 255 255 255
180.125443 -83.333374 67.561241 255 255 255
179.534317 -82.891075 67.572220 255 255 255
178.824036 -82.359634 67.585411 255 255 255
178.747360 -82.302261 67.739807 255 255 255
178.476074 -82.099274 67.867203 255 255 255
178.454300 -82.082985 68.038292 255 255 255
178.454300 -82.082993 68.212059 255 255 255
178.454300 -82.082985 68.385307 255 255 255
178.454300 -82.082993 68.558128 255 255 255
177.749817 -81.555885 68.700813 255 255 255
177.749817 -81.555885 68.888489 255 255 255
177.749832 -81.555885 69.076065 255 255 255
177.749817 -81.555885 69.263641 255 255 255
177.749817 -81.555885 69.451340 255 255 255
177.749817 -81.555885 69.639275 255 255 255
177.749817 -81.555885 69.827560 255 255 255
177.749817 -81.555885 70.016312 255 255 255
177.749817 -81.555885 70.205650 255 255 255
177.749817 -81.555885 70.395691 255 255 255
177.749817 -81.555885 70.586555 255 255 255
177.749817 -81.555885 70.778358 255 255 255
177.749832 -81.555885 70.971237 255 255 255
177.751816 -81.557358 71.164833 255 255 255
177.751694 -81.557274 71.360229 255 255 255
177.879364 -81.652809 71.520065 255 255 255
177.881058 -81.654083 71.715012 255 255 255
177.881058 -81.654091 71.912170 255 255 255
177.881058 -81.654083 72.111191 255 255 255
177.881058 -81.654083 72.312218 255 255 255
177.881058 -81.654083 72.515411 255 255 255
177.881058 -81.654083 72.720924 255 255 255
177.881058 -81.654083 72.928940 255 255 255
177.881058 -81.654091 73.139618 255 255 255
177.881058 -81.654083 73.353149 255 255 255
186.279404 -87.939896 67.341522 255 255 255
186.254913 -87.922226 67.341560 255 255 255
186.230362 -87.904518 67.341599 255 255 255
186.205734 -87.886757 67.341637 255 255 255
186.181015 -87.868927 67.341675 255 255 255
186.156189 -87.851021 67.341713 255 255 255
186.131256 -87.833031 67.341751 255 255 255
186.106171 -87.814934 67.341789 255 255 255
186.080933 -87.796730 67.341827 255 255 255
186.055527 -87.778404 67.341866 255 255 255
186.029922 -87.759941 67.341904 255 255 255
186.004120 -87.741325 67.341949 255 255 255
185.978088 -87.722549 67.341988 255 255 255
185.951828 -87.703598 67.342026 255 255 255
185.925064 -87.684296 67.341187 255 255 255
185.897949 -87.664742 67.340195 255 255 255
185.870499 -87.644943 67.339195 255 255 255
185.842682 -87.624878 67.338181 255 255 255
185.814484 -87.604530 67.337143 255 255 255
185.785858 -87.583885 67.336105 255 255 255
185.756790 -87.562920 67.335037 255 255 255
185.727249 -87.541611 67.333961 255 255 255
185.697220 -87.519943 67.332863 255 255 255
185.666641 -87.497887 67.331749 255 255 255
185.635498 -87.475426 67.330612 255 255 255
185.603760 -87.452530 67.329453 255 255 255
185.571381 -87.429169 67.328270 255 255 255
185.538315 -87.405319 67.327065 255 255 255
185.504532 -87.380951 67.325829 255 255 255
185.469986 -87.356033 67.324562 255 255 255
185.434616 -87.330521 67.323273 255 255 255
185.398392 -87.304382 67.321953 255 255 255
185.361237 -87.277580 67.320595 255 255 255
185.323090 -87.250069 67.319199 255 255 255
185.283905 -87.221809 67.317772 255 255 255
185.243622 -87.192741 67.316299 255 255 255
185.202133 -87.162811 67.314781 255 255 255
185.159378 -87.131981 67.313225 255 255 255
185.115280 -87.100159 67.311615 255 255 255
185.069733 -87.067307 67.309952 255 255 255
185.022629 -87.033333 67.308228 255 255 255
184.973862 -86.998161 67.306450 255 255 255
184.923325 -86.961700 67.304604 255 255 255
184.870880 -86.923874 67.302689 255 255 255
184.816376 -86.884552 67.300697 255 255 255
184.759659 -86.843643 67.298622 255 255 255
184.700546 -86.801003 67.296463 255 255 255
184.638870 -86.756508 67.294212 255 255 255
184.574387 -86.709991 67.291855 255 255 255
184.506866 -86.661293 67.289391 255 255 255
184.436050 -86.610207 67.286789 255 255 255
184.361633 -86.556534 67.284065 255 255 255
184.283310 -86.500031 67.281189 255 255 255
184.200699 -86.440437 67.278160 255 255 255
184.113388 -86.377457 67.274956 255 255 255
184.020905 -86.310738 67.271561 255 255 255
183.922699 -86.239899 67.267960 255 255 255
183.818176 -86.164505 67.264122 255 255 255
183.706635 -86.084045 67.260033 255 255 255
183.587250 -85.997932 67.255653 255 255 255
183.469910 -85.913284 67.257713 255 255 255
183.348404 -85.825645 67.262260 255 255 255
183.218582 -85.731987 67.267128 255 255 255
183.079422 -85.631607 67.272362 255 255 255
183.003357 -85.576744 67.316391 255 255 255
183.003021 -85.576492 67.400635 255 255 255
182.905518 -85.506165 67.437866 255 255 255
182.719772 -85.372177 67.439301 255 255 255
182.558121 -85.255577 67.458855 255 255 255
182.383774 -85.129807 67.480019 255 255 255
182.204712 -85.000641 67.506645 255 255 255
182.019516 -84.867058 67.538490 255 255 255
181.819138 -84.722504 67.572960 255 255 255
181.521408 -84.507744 67.585892 255 255 255
0.000000 0.000000 0.000000 0 0 0
180.547058 -83.804901 67.550812 255 255 255
180.026535 -83.429428 67.556824 255 255 255
179.414642 -82.988037 67.565376 255 255 255
178.688416 -82.464188 67.577957 255 255 255
178.688416 -82.464180 67.746559 255 255 255
178.392944 -82.251045 67.869995 255 255 255
178.392944 -82.251045 68.043503 255 255 255
178.392944 -82.251053 68.216393 255 255 255
178.392944 -82.251053 68.388756 255 255 255
178.392944 -82.251053 68.560707 255 255 255
177.683151 -81.739044 68.702667 255 255 255
177.683151 -81.739044 68.889389 255 255 255
177.683151 -81.739044 69.076012 255 255 255
177.683151 -81.739044 69.262627 255 255 255
177.683151 -81.739044 69.449371 255 255 255
177.683151 -81.739044 69.636353 255 255 255
177.683151 -81.739044 69.823677 255 255 255
177.683151 -81.739044 70.011467 255 255 255
177.683151 -81.739044 70.199844 255 255 255
177.683151 -81.739044 70.388916 255 255 255
177.683151 -81.739044 70.578804 255 255 255
177.683151 -81.739044 70.769638 255 255 255
177.683151 -81.739044 70.961533 255 255 255
177.685165 -81.740486 71.154144 255 255 255
177.685059 -81.740410 71.348534 255 255 255
177.769989 -81.801682 71.520065 255 255 255
177.815414 -81.834450 71.701523 255 255 255
177.815414 -81.834450 71.897675 255 255 255
177.815414 -81.834450 72.095680 255 255 255
177.815414 -81.834457 72.295685 255 255 255
177.815414 -81.834457 72.497841 255 255 255
177.815414 -81.834450 72.702309 255 255 255
177.815414 -81.834450 72.909264 255 255 255
177.815414 -81.834450 73.118874 255 255 255
177.815414 -81.834450 73.331314 255 255 255
186.278458 -87.941200 67.341400 255 255 255
186.253662 -87.923965 67.341393 255 255 255
186.228806 -87.906685 67.341393 255 255 255
186.203857 -87.889343 67.341385 255 255 255
186.178833 -87.871948 67.341377 255 255 255
186.153687 -87.854469 67.341377 255 255 255
186.128433 -87.836906 67.341370 255 255 255
186.103027 -87.819252 67.341370 255 255 255
186.077454 -87.801476 67.341362 255 255 255
186.051727 -87.783585 67.341362 255 255 255
186.025787 -87.765564 67.341354 255 255 255
185.999649 -87.747391 67.341347 255 255 255
185.973282 -87.729057 67.341347 255 255 255
185.946655 -87.710548 67.341339 255 255 255
185.919525 -87.691689 67.340370 255 255 255
185.892044 -87.672592 67.339325 255 255 255
185.864227 -87.653252 67.338272 255 255 255
185.836029 -87.633652 67.337204 255 255 255
185.807449 -87.613777 67.336121 255 255 255
185.778427 -87.593613 67.335014 255 255 255
185.748962 -87.573128 67.333900 255 255 255
185.719025 -87.552315 67.332764 255 255 255
185.688568 -87.531143 67.331612 255 255 255
185.657562 -87.509598 67.330429 255 255 255
185.625992 -87.487648 67.329231 255 255 255
185.593796 -87.465271 67.328011 255 255 255
185.560959 -87.442444 67.326767 255 255 255
185.527435 -87.419128 67.325493 255 255 255
185.493164 -87.395309 67.324196 255 255 255
185.458115 -87.370949 67.322868 255 255 255
185.422241 -87.346008 67.321503 255 255 255
185.385483 -87.320457 67.320114 255 255 255
185.347778 -87.294250 67.318680 255 255 255
185.309082 -87.267349 67.317215 255 255 255
185.269318 -87.239708 67.315704 255 255 255
185.228424 -87.211281 67.314156 255 255 255
185.186325 -87.182014 67.312553 255 255 255
185.142929 -87.151848 67.310913 255 255 255
185.098160 -87.120728 67.309212 255 255 255
185.051910 -87.088577 67.307457 255 255 255
185.004089 -87.055336 67.305641 255 255 255
184.954575 -87.020920 67.303764 255 255 255
184.903244 -86.985237 67.301819 255 255 255
184.849976 -86.948212 67.299797 255 255 255
184.794601 -86.909721 67.297699 255 255 255
184.736984 -86.869667 67.295509 255 255 255
184.676926 -86.827919 67.293236 255 255 255
184.614243 -86.784340 67.290855 255 255 255
184.548706 -86.738785 67.288368 255 255 255
184.480072 -86.691078 67.285767 255 255 255
184.408081 -86.641029 67.283020 255 255 255
184.332413 -86.588432 67.280144 255 255 255
184.252762 -86.533066 67.277107 255 255 255
184.168732 -86.474648 67.273903 255 255 255
184.079895 -86.412903 67.270523 255 255 255
183.985779 -86.347481 67.266937 255 255 255
183.885849 -86.278000 67.263130 255 255 255
183.779434 -86.204033 67.259071 255 255 255
183.665863 -86.125084 67.254745 255 255 255
183.544281 -86.040565 67.250114 255 255 255
183.427277 -85.959236 67.253525 255 255 255
183.303696 -85.873329 67.257912 255 255 255
183.171600 -85.781509 67.262611 255 255 255
183.029984 -85.683067 67.267654 255 255 255
182.977493 -85.646568 67.324539 255 255 255
182.977127 -85.646324 67.408379 255 255 255
182.851425 -85.558945 67.432648 255 255 255
182.667175 -85.430862 67.436035 255 255 255
182.502853 -85.316635 67.455482 255 255 255
182.325607 -85.193420 67.476555 255 255 255
182.146194 -85.068710 67.504082 255 255 255
181.958069 -84.937943 67.535873 255 255 255
181.754486 -84.796410 67.570274 255 255 255
181.446548 -84.582359 67.581429 255 255 255
180.911682 -84.210548 67.542015 255 255 255
180.459473 -83.896210 67.546860 255 255 255
179.929596 -83.527870 67.552528 255 255 255
179.299744 -83.090034 67.559273 255 255 255
178.630066 -82.624519 67.585045 255 255 255
178.630066 -82.624519 67.752846 255 255 255
178.332199 -82.417458 67.875664 255 255 255
178.332199 -82.417465 68.048355 255 255 255
178.332199 -82.417465 68.220421 255 255 255
178.332199 -82.417465 68.391968 255 255 255
178.332199 -82.417465 68.563103 255 255 255
177.617142 -81.920403 68.704399 255 255 255
177.617142 -81.920403 68.890228 255 255 255
177.617157 -81.920403 69.075958 255 255 255
177.617142 -81.920403 69.261688 255 255 255
177.617142 -81.920403 69.447540 255 255 255
177.617142 -81.920403 69.633629 255 255 255
177.617157 -81.920403 69.820068 255 255 255
177.617142 -81.920403 70.006958 255 255 255
177.617142 -81.920403 70.194435 255 255 255
177.617142 -81.920403 70.382607 255 255 255
177.617142 -81.920403 70.571594 255 255 255
177.617142 -81.920403 70.761513 255 255 255
177.617142 -81.920403 70.952499 255 255 255
177.619171 -81.921814 71.144188 255 255 255
177.619064 -81.921730 71.337654 255 255 255
177.663223 -81.952438 71.520065 255 255 255
177.750412 -82.013039 71.688957 255 255 255
177.750412 -82.013046 71.884178 255 255 255
177.750412 -82.013046 72.081238 255 255 255
177.750412 -82.013046 72.280289 255 255 255
177.750412 -82.013039 72.481483 255 255 255
177.750412 -82.013039 72.684982 255 255 255
177.750412 -82.013039 72.890945 255 255 255
177.750412 -82.013046 73.099556 255 255 255
177.750412 -82.013039 73.310989 255 255 255
186.277557 -87.942528 67.341270 255 255 255
186.252457 -87.925720 67.341225 255 255 255
186.227280 -87.908875 67.341179 255 255 255
186.202042 -87.891968 67.341133 255 255 255
186.176697 -87.875000 67.341087 255 255 255
186.151260 -87.857964 67.341042 255 255 255
186.125671 -87.840836 67.340996 255 255 255
186.099960 -87.823616 67.340942 255 255 255
186.074066 -87.806282 67.340897 255 255 255
186.048004 -87.788834 67.340851 255 255 255
186.021744 -87.771255 67.340805 255 255 255
185.995285 -87.753525 67.340752 255 255 255
185.968567 -87.735649 67.340706 255 255 255
185.941605 -87.717590 67.340637 255 255 255
185.914108 -87.699181 67.339554 255 255 255
185.886276 -87.680550 67.338463 255 255 255
185.858093 -87.661674 67.337357 255 255 255
185.829529 -87.642555 67.336235 255 255 255
185.800568 -87.623161 67.335091 255 255 255
185.771179 -87.603477 67.333939 255 255 255
185.741318 -87.583488 67.332764 255 255 255
185.710968 -87.563164 67.331573 255 255 255
185.680099 -87.542503 67.330360 255 255 255
185.648697 -87.521469 67.329124 255 255 255
185.616684 -87.500038 67.327866 255 255 255
185.584061 -87.478195 67.326584 255 255 255
185.550766 -87.455902 67.325272 255 255 255
185.516785 -87.433144 67.323936 255 255 255
185.482040 -87.409882 67.322571 255 255 255
185.446503 -87.386093 67.321175 255 255 255
185.410126 -87.361732 67.319748 255 255 255
185.372849 -87.336777 67.318283 255 255 255
185.334610 -87.311172 67.316780 255 255 255
185.295364 -87.284897 67.315231 255 255 255
185.255035 -87.257896 67.313652 255 255 255
185.213547 -87.230118 67.312019 255 255 255
185.170837 -87.201515 67.310341 255 255 255
185.126816 -87.172035 67.308609 255 255 255
185.081375 -87.141617 67.306824 255 255 255
185.034454 -87.110199 67.304977 255 255 255
184.985916 -87.077698 67.303070 255 255 255
184.935654 -87.044052 67.301094 255 255 255
184.883560 -87.009171 67.299042 255 255 255
184.829468 -86.972954 67.296921 255 255 255
184.773254 -86.935318 67.294708 255 255 255
184.714752 -86.896133 67.292412 255 255 255
184.653748 -86.855301 67.290009 255 255 255
184.590073 -86.812660 67.287506 255 255 255
184.523499 -86.768089 67.284889 255 255 255
184.453766 -86.721397 67.282150 255 255 255
184.380615 -86.672417 67.279259 255 255 255
184.303711 -86.620926 67.276222 255 255 255
184.222748 -86.566711 67.273033 255 255 255
184.137314 -86.509514 67.269653 255 255 255
184.046982 -86.449028 67.266090 255 255 255
183.951263 -86.384933 67.262314 255 255 255
183.849579 -86.316864 67.258301 255 255 255
183.741318 -86.244370 67.254028 255 255 255
183.625717 -86.166969 67.249458 255 255 255
183.503143 -86.084900 67.245346 255 255 255
183.385300 -86.005997 67.249298 255 255 255
183.259628 -85.921852 67.253510 255 255 255
183.125305 -85.831917 67.258034 255 255 255
182.981247 -85.735458 67.262886 255 255 255
182.951843 -85.715775 67.332077 255 255 255
182.951477 -85.715530 67.415558 255 255 255
182.798050 -85.612801 67.427391 255 255 255
182.615265 -85.490410 67.432648 255 255 255
182.448288 -85.378609 67.452003 255 255 255
182.268112 -85.257980 67.472961 255 255 255
182.088364 -85.137619 67.501358 255 255 255
181.897308 -85.009697 67.533081 255 255 255
181.690506 -84.871239 67.567429 255 255 255
181.328918 -84.629128 67.563850 255 255 255
180.833099 -84.297150 67.538315 255 255 255
180.373154 -83.989197 67.542862 255 255 255
179.833984 -83.628189 67.548187 255 255 255
179.192734 -83.198837 67.554527 255 255 255
178.572250 -82.783379 67.591614 255 255 255
178.572250 -82.783379 67.758675 255 255 255
178.272003 -82.582352 67.880928 255 255 255
178.272003 -82.582352 68.052856 255 255 255
178.272003 -82.582352 68.224152 255 255 255
178.272003 -82.582352 68.394943 255 255 255
178.272003 -82.582352 68.565323 255 255 255
177.619324 -82.145340 68.708763 255 255 255
177.619278 -82.145309 68.892349 255 255 255
177.619232 -82.145271 69.075836 255 255 255
177.619171 -82.145241 69.259323 255 255 255
177.619110 -82.145203 69.442940 255 255 255
177.619064 -82.145164 69.626785 255 255 255
177.619019 -82.145134 69.810974 255 255 255
177.618958 -82.145088 69.995628 255 255 255
177.618912 -82.145058 70.180847 255 255 255
177.618851 -82.145020 70.366760 255 255 255
177.618790 -82.144989 70.553490 255 255 255
177.618744 -82.144951 70.741135 255 255 255
177.618698 -82.144913 70.929832 255 255 255
177.618622 -82.144875 71.119705 255 255 255
177.618576 -82.144836 71.310883 255 255 255
177.618530 -82.144806 71.503487 255 255 255
177.686005 -82.189995 71.677307 255 255 255
177.686005 -82.189995 71.871658 255 255 255
177.686005 -82.189995 72.067841 255 255 255
177.686005 -82.189995 72.266014 255 255 255
177.686005 -82.189995 72.466316 255 255 255
177.686005 -82.189995 72.668907 255 255 255
177.686005 -82.189995 72.873955 255 255 255
177.686005 -82.189995 73.081642 255 255 255
177.686005 -82.189995 73.292137 255 255 255
186.276657 -87.943863 67.341141 255 255 255
186.251266 -87.927498 67.341057 255 255 255
186.225815 -87.911087 67.340965 255 255 255
186.200272 -87.894623 67.340881 255 255 255
186.174622 -87.878098 67.340790 255 255 255
186.148880 -87.861496 67.340698 255 255 255
186.122986 -87.844810 67.340614 255 255 255
186.096954 -87.828033 67.340523 255 255 255
186.070770 -87.811150 67.340431 255 255 255
186.044388 -87.794151 67.340340 255 255 255
186.017807 -87.777016 67.340248 255 255 255
185.991013 -87.759743 67.340157 255 255 255
185.963974 -87.742317 67.340065 255 255 255
185.936661 -87.724716 67.339882 255 255 255
185.908829 -87.706772 67.338753 255 255 255
185.880646 -87.688606 67.337601 255 255 255
185.852112 -87.670212 67.336441 255 255 255
185.823196 -87.651573 67.335266 255 255 255
185.793854 -87.632660 67.334076 255 255 255
185.764084 -87.613472 67.332863 255 255 255
185.733841 -87.593979 67.331635 255 255 255
185.703110 -87.574173 67.330383 255 255 255
185.671844 -87.554016 67.329117 255 255 255
185.640015 -87.533508 67.327820 255 255 255
185.607605 -87.512604 67.326500 255 255 255
185.574539 -87.491302 67.325157 255 255 255
185.540817 -87.469559 67.323784 255 255 255
185.506363 -87.447357 67.322388 255 255 255
185.471161 -87.424667 67.320953 255 255 255
185.435150 -87.401451 67.319489 255 255 255
185.398285 -87.377686 67.317993 255 255 255
185.360489 -87.353333 67.316460 255 255 255
185.321747 -87.328354 67.314880 255 255 255
185.281952 -87.302704 67.313263 255 255 255
185.241058 -87.276344 67.311600 255 255 255
185.198990 -87.249237 67.309891 255 255 255
185.155685 -87.221313 67.308128 255 255 255
185.111038 -87.192535 67.306313 255 255 255
185.064957 -87.162834 67.304443 255 255 255
185.017349 -87.132156 67.302505 255 255 255
184.968124 -87.100418 67.300507 255 255 255
184.917130 -87.067558 67.298431 255 255 255
184.864273 -87.033478 67.296280 255 255 255
184.809387 -86.998108 67.294052 255 255 255
184.752335 -86.961334 67.291733 255 255 255
184.692947 -86.923050 67.289314 255 255 255
184.631027 -86.883141 67.286797 255 255 255
184.566376 -86.841469 67.284172 255 255 255
184.498779 -86.797897 67.281418 255 255 255
184.427963 -86.752251 67.278542 255 255 255
184.353653 -86.704353 67.275505 255 255 255
184.275543 -86.653999 67.272316 255 255 255
184.193268 -86.600975 67.268959 255 255 255
184.106445 -86.545013 67.265419 255 255 255
184.014633 -86.485832 67.261673 255 255 255
183.917328 -86.423103 67.257698 255 255 255
183.813934 -86.356468 67.253479 255 255 255
183.703827 -86.285492 67.248985 255 255 255
183.586227 -86.209686 67.244186 255 255 255
183.463730 -86.130737 67.241226 255 255 255
183.343979 -86.053543 67.245010 255 255 255
183.216263 -85.971222 67.249062 255 255 255
183.079697 -85.883202 67.253403 255 255 255
182.933212 -85.788780 67.258064 255 255 255
182.926407 -85.784393 67.339035 255 255 255
182.918610 -85.779366 67.418610 255 255 255
182.745361 -85.667694 67.422073 255 255 255
182.564011 -85.550812 67.429138 255 255 255
182.394409 -85.441483 67.448395 255 255 255
182.211334 -85.323471 67.469238 255 255 255
182.031219 -85.207382 67.498482 255 255 255
181.837234 -85.082344 67.530136 255 255 255
181.627228 -84.946976 67.564415 255 255 255
181.206772 -84.675972 67.544899 255 255 255
180.755768 -84.385262 67.534576 255 255 255
180.288147 -84.083855 67.538826 255 255 255
179.739731 -83.730362 67.543808 255 255 255
179.087158 -83.309723 67.549728 255 255 255
178.514923 -82.940887 67.597687 255 255 255
178.514923 -82.940887 67.764053 255 255 255
178.212326 -82.745842 67.885780 255 255 255
178.212326 -82.745842 68.057007 255 255 255
178.212326 -82.745842 68.227608 255 255 255
178.212326 -82.745842 68.397690 255 255 255
178.212326 -82.745842 68.567368 255 255 255
177.486893 -82.278252 68.707474 255 255 255
177.486908 -82.278252 68.891724 255 255 255
177.486893 -82.278252 69.075867 255 255 255
177.486893 -82.278252 69.260010 255 255 255
177.486893 -82.278252 69.444275 255 255 255
177.486893 -82.278252 69.628777 255 255 255
177.486893 -82.278259 69.813622 255 255 255
177.486893 -82.278252 69.998917 255 255 255
177.486893 -82.278259 70.184792 255 255 255
177.486893 -82.278252 70.371353 255 255 255
177.486893 -82.278252 70.558731 255 255 255
177.486893 -82.278252 70.747025 255 255 255
177.486893 -82.278259 70.936378 255 255 255
177.488968 -82.279594 71.126427 255 255 255
177.488861 -82.279510 71.318237 255 255 255
177.488754 -82.279434 71.511497 255 255 255
177.622147 -82.365440 71.666550 255 255 255
177.622147 -82.365440 71.860100 255 255 255
177.622147 -82.365440 72.055473 255 255 255
177.622147 -82.365433 72.252831 255 255 255
177.622147 -82.365433 72.452309 255 255 255
177.622147 -82.365440 72.654060 255 255 255
177.622147 -82.365440 72.858269 255 255 255
177.622147 -82.365433 73.065102 255 255 255
177.622147 -82.365433 73.274727 255 255 255
186.275803 -87.945221 67.341019 255 255 255
186.250122 -87.929298 67.340889 255 255 255
186.224365 -87.913330 67.340759 255 255 255
186.198532 -87.897308 67.340630 255 255 255
186.172607 -87.881226 67.340492 255 255 255
186.146561 -87.865074 67.340363 255 255 255
186.120377 -87.848839 67.340233 255 255 255
186.094040 -87.832512 67.340103 255 255 255
186.067551 -87.816078 67.339966 255 255 255
186.040863 -87.799530 67.339828 255 255 255
186.013977 -87.782852 67.339699 255 255 255
185.986862 -87.766037 67.339561 255 255 255
185.959503 -87.749077 67.339424 255 255 255
185.931854 -87.731926 67.339134 255 255 255
185.903671 -87.714455 67.337944 255 255 255
185.875153 -87.696770 67.336754 255 255 255
185.846283 -87.678856 67.335541 255 255 255
185.817001 -87.660706 67.334312 255 255 255
185.787308 -87.642288 67.333061 255 255 255
185.757172 -87.623596 67.331795 255 255 255
185.726563 -87.604614 67.330513 255 255 255
185.695435 -87.585320 67.329208 255 255 255
185.663788 -87.565689 67.327881 255 255 255
185.631561 -87.545700 67.326523 255 255 255
185.598724 -87.525345 67.325150 255 255 255
185.565247 -87.504585 67.323746 255 255 255
185.531082 -87.483398 67.322311 255 255 255
185.496201 -87.461761 67.320847 255 255 255
185.460541 -87.439651 67.319351 255 255 255
185.424057 -87.417030 67.317818 255 255 255
185.386703 -87.393860 67.316246 255 255 255
185.348419 -87.370125 67.314644 255 255 255
185.309158 -87.345772 67.312996 255 255 255
185.268845 -87.320770 67.311302 255 255 255
185.227402 -87.295074 67.309563 255 255 255
185.184769 -87.268631 67.307770 255 255 255
185.140869 -87.241409 67.305931 255 255 255
185.095612 -87.213341 67.304031 255 255 255
185.048889 -87.184372 67.302071 255 255 255
185.000626 -87.154442 67.300041 255 255 255
184.950714 -87.123482 67.297951 255 255 255
184.899002 -87.091423 67.295776 255 255 255
184.845398 -87.058174 67.293526 255 255 255
184.789734 -87.023651 67.291191 255 255 255
184.731857 -86.987762 67.288757 255 255 255
184.671600 -86.950394 67.286232 255 255 255
184.608765 -86.911430 67.283592 255 255 255
184.543167 -86.870750 67.280838 255 255 255
184.474548 -86.828201 67.277962 255 255 255
184.402664 -86.783623 67.274940 255 255 255
184.327225 -86.736839 67.271767 255 255 255
184.247910 -86.687653 67.268425 255 255 255
184.164352 -86.635834 67.264900 255 255 255
184.076172 -86.581146 67.261185 255 255 255
183.982895 -86.523300 67.257256 255 255 255
183.884003 -86.461983 67.253090 255 255 255
183.778931 -86.396820 67.248665 255 255 255
183.666977 -86.327400 67.243950 255 255 255
183.547409 -86.253242 67.238907 255 255 255
183.424988 -86.177322 67.237061 255 255 255
183.303329 -86.101883 67.240685 255 255 255
183.173584 -86.021416 67.244560 255 255 255
183.034805 -85.935356 67.248718 255 255 255
182.901520 -85.852699 67.261337 255 255 255
182.901169 -85.852493 67.345406 255 255 255
182.869629 -85.832932 67.413467 255 255 255
182.693375 -85.723633 67.416695 255 255 255
182.513474 -85.612061 67.425514 255 255 255
182.341232 -85.505249 67.444664 255 255 255
182.157288 -85.391182 67.466164 255 255 255
181.974762 -85.277992 67.495438 255 255 255
181.777847 -85.155876 67.527023 255 255 255
181.564636 -85.023651 67.561226 255 255 255
181.088699 -84.728508 67.527092 255 255 255
180.679703 -84.474876 67.530815 255 255 255
180.204468 -84.180168 67.534752 255 255 255
179.646866 -83.834381 67.539375 255 255 255
178.983017 -83.422691 67.544884 255 255 255
178.458054 -83.097145 67.603264 255 255 255
178.458054 -83.097145 67.768997 255 255 255
178.153122 -82.908043 67.890244 255 255 255
178.153107 -82.908043 68.060822 255 255 255
178.153107 -82.908043 68.230774 255 255 255
178.153107 -82.908043 68.400215 255 255 255
178.153107 -82.908043 68.569252 255 255 255
177.422562 -82.455002 68.708839 255 255 255
177.422562 -82.455002 68.892380 255 255 255
177.422562 -82.455002 69.075829 255 255 255
177.422577 -82.455002 69.259270 255 255 255
177.422562 -82.455002 69.442833 255 255 255
177.422577 -82.455002 69.626633 255 255 255
177.422562 -82.455002 69.810776 255 255 255
177.422562 -82.455002 69.995369 255 255 255
177.422562 -82.455002 70.180534 255 255 255
177.422562 -82.455002 70.366394 255 255 255
177.422562 -82.455002 70.553055 255 255 255
177.422577 -82.455002 70.740631 255 255 255
177.422562 -82.455002 70.929268 255 255 255
177.424683 -82.456306 71.118591 255 255 255
177.424545 -82.456238 71.309677 255 255 255
177.424438 -82.456161 71.502197 255 255 255
177.559296 -82.539787 71.656525 255 255 255
177.559296 -82.539787 71.849327 255 255 255
177.559280 -82.539787 72.043953 255 255 255
177.559280 -82.539787 72.240540 255 255 255
177.559296 -82.539787 72.439255 255 255 255
177.559296 -82.539787 72.640228 255 255 255
177.558807 -82.539490 72.843857 255 255 255
177.558807 -82.539490 73.049904 255 255 255
177.558807 -82.539490 73.258728 255 255 255
186.274963 -87.946594 67.340889 255 255 255
186.248993 -87.931114 67.340721 255 255 255
186.222977 -87.915596 67.340546 255 255 255
186.196854 -87.900024 67.340378 255 255 255
186.170639 -87.884392 67.340202 255 255 255
186.144302 -87.868690 67.340027 255 255 255
186.117828 -87.852905 67.339851 255 255 255
186.091202 -87.837036 67.339676 255 255 255
186.064407 -87.821053 67.339500 255 255 255
186.037430 -87.804970 67.339325 255 255 255
186.010223 -87.788757 67.339142 255 255 255
185.982819 -87.772408 67.338966 255 255 255
185.955139 -87.755913 67.338783 255 255 255
185.927155 -87.739227 67.338387 255 255 255
185.898666 -87.722229 67.337151 255 255 255
185.869812 -87.705032 67.335899 255 255 255
185.840591 -87.687607 67.334641 255 255 255
185.810974 -87.669952 67.333359 255 255 255
185.780930 -87.652039 67.332054 255 255 255
185.750427 -87.633850 67.330734 255 255 255
185.719452 -87.615379 67.329399 255 255 255
185.687958 -87.596611 67.328033 255 255 255
185.655930 -87.577507 67.326653 255 255 255
185.623306 -87.558060 67.325241 255 255 255
185.590073 -87.538246 67.323799 255 255 255
185.556183 -87.518044 67.322334 255 255 255
185.521606 -87.497421 67.320839 255 255 255
185.486282 -87.476364 67.319313 255 255 255
185.450180 -87.454834 67.317749 255 255 255
185.413239 -87.432816 67.316147 255 255 255
185.375412 -87.410263 67.314514 255 255 255
185.336655 -87.387146 67.312836 255 255 255
185.296875 -87.363434 67.311119 255 255 255
185.256042 -87.339081 67.309349 255 255 255
185.214066 -87.314056 67.307533 255 255 255
185.170868 -87.288307 67.305664 255 255 255
185.126389 -87.261787 67.303741 255 255 255
185.080536 -87.234444 67.301758 255 255 255
185.033203 -87.206223 67.299706 255 255 255
184.984299 -87.177063 67.297592 255 255 255
184.933685 -87.146889 67.295403 255 255 255
184.881287 -87.115646 67.293137 255 255 255
184.826935 -87.083237 67.290787 255 255 255
184.770493 -87.049591 67.288345 255 255 255
184.711807 -87.014603 67.285805 255 255 255
184.650711 -86.978165 67.283157 255 255 255
184.586990 -86.940178 67.280403 255 255 255
184.520432 -86.900497 67.277527 255 255 255
184.450836 -86.858994 67.274513 255 255 255
184.377899 -86.815514 67.271355 255 255 255
184.301331 -86.769859 67.268036 255 255 255
184.220825 -86.721863 67.264542 255 255 255
184.136017 -86.671295 67.260857 255 255 255
184.046478 -86.617905 67.256973 255 255 255
183.951752 -86.561432 67.252853 255 255 255
183.851318 -86.501549 67.248497 255 255 255
183.744568 -86.437897 67.243858 255 255 255
183.630814 -86.370079 67.238922 255 255 255
183.509277 -86.297615 67.233643 255 255 255
183.386917 -86.224655 67.232849 255 255 255
183.263382 -86.151009 67.236305 255 255 255
183.131607 -86.072441 67.240013 255 255 255
182.990631 -85.988388 67.243980 255 255 255
182.876465 -85.920319 67.267433 255 255 255
182.876114 -85.920105 67.351212 255 255 255
182.821365 -85.887466 67.408272 255 255 255
182.642136 -85.780602 67.411270 255 255 255
182.463623 -85.674171 67.421776 255 255 255
182.288757 -85.569908 67.440811 255 255 255
182.104218 -85.459885 67.463036 255 255 255
181.919022 -85.349457 67.492241 255 255 255
181.719177 -85.230301 67.523750 255 255 255
181.500824 -85.100121 67.557281 255 255 255
181.003036 -84.803329 67.518570 255 255 255
180.604950 -84.565971 67.527008 255 255 255
180.122162 -84.278122 67.530647 255 255 255
179.555450 -83.940224 67.534912 255 255 255
178.880371 -83.537727 67.539993 255 255 255
178.401581 -83.252266 67.608353 255 255 255
178.401581 -83.252266 67.773514 255 255 255
178.094330 -83.069069 67.894318 255 255 255
178.094330 -83.069069 68.064301 255 255 255
178.094330 -83.069069 68.233665 255 255 255
178.094330 -83.069069 68.402519 255 255 255
178.094330 -83.069069 68.570969 255 255 255
177.264526 -82.574318 68.706360 255 255 255
177.264526 -82.574318 68.891182 255 255 255
177.264526 -82.574318 69.075897 255 255 255
177.264526 -82.574318 69.260620 255 255 255
177.264511 -82.574310 69.445465 255 255 255
177.264511 -82.574310 69.630539 255 255 255
177.264526 -82.574318 69.815956 255 255 255
177.264511 -82.574310 70.001839 255 255 255
177.264511 -82.574310 70.188286 255 255 255
177.264511 -82.574310 70.375435 255 255 255
177.264526 -82.574318 70.563393 255 255 255
177.264526 -82.574318 70.752281 255 255 255
177.264526 -82.574318 70.942223 255 255 255
177.264511 -82.574310 71.133347 255 255 255
177.264526 -82.574318 71.325775 255 255 255
177.264526 -82.574318 71.519646 255 255 255
177.496445 -82.712593 71.647484 255 255 255
177.496445 -82.712601 71.839615 255 255 255
177.496445 -82.712593 72.033562 255 255 255
177.496445 -82.712601 72.229469 255 255 255
177.496445 -82.712593 72.427483 255 255 255
177.496445 -82.712593 72.627762 255 255 255
177.495911 -82.712280 72.830696 255 255 255
177.495911 -82.712280 73.036018 255 255 255
177.495911 -82.712280 73.244125 255 255 255
186.274139 -87.947975 67.340759 255 255 255
186.247910 -87.932953 67.340546 255 255 255
186.221603 -87.917885 67.340332 255 255 255
186.195221 -87.902771 67.340118 255 255 255
186.168716 -87.887596 67.339905 255 255 255
186.142105 -87.872345 67.339691 255 255 255
186.115356 -87.857025 67.339478 255 255 255
186.088440 -87.841606 67.339256 255 255 255
186.061356 -87.826096 67.339035 255 255 255
186.034088 -87.810471 67.338814 255 255 255
186.006592 -87.794724 67.338593 255 255 255
185.978882 -87.778847 67.338364 255 255 255
185.950912 -87.762825 67.338142 255 255 255
185.922592 -87.746605 67.337639 255 255 255
185.893784 -87.730103 67.336357 255 255 255
185.864609 -87.713394 67.335060 255 255 255
185.835052 -87.696465 67.333740 255 255 255
185.805099 -87.679306 67.332413 255 255 255
185.774719 -87.661903 67.331055 255 255 255
185.743866 -87.644234 67.329681 255 255 255
185.712540 -87.626282 67.328285 255 255 255
185.680679 -87.608032 67.326874 255 255 255
185.648270 -87.589470 67.325424 255 255 255
185.615265 -87.570564 67.323959 255 255 255
185.581650 -87.551308 67.322464 255 255 255
185.547363 -87.531670 67.320938 255 255 255
185.512360 -87.511620 67.319374 255 255 255
185.476624 -87.491150 67.317787 255 255 255
185.440079 -87.470215 67.316154 255 255 255
185.402695 -87.448799 67.314491 255 255 255
185.364410 -87.426872 67.312790 255 255 255
185.325165 -87.404388 67.311043 255 255 255
185.284897 -87.381325 67.309250 255 255 255
185.243546 -87.357643 67.307411 255 255 255
185.201050 -87.333298 67.305511 255 255 255
185.157318 -87.308250 67.303566 255 255 255
185.112274 -87.282448 67.301559 255 255 255
185.065826 -87.255844 67.299492 255 255 255
185.017883 -87.228378 67.297363 255 255 255
184.968338 -87.199997 67.295151 255 255 255
184.917084 -87.170631 67.292870 255 255 255
184.863983 -87.140221 67.290504 255 255 255
184.808899 -87.108673 67.288055 255 255 255
184.751709 -87.075905 67.285507 255 255 255
184.692230 -87.041840 67.282860 255 255 255
184.630280 -87.006355 67.280106 255 255 255
184.565689 -86.969353 67.277229 255 255 255
184.498215 -86.930702 67.274223 255 255 255
184.427628 -86.890274 67.271080 255 255 255
184.353653 -86.847900 67.267784 255 255 255
184.276001 -86.803413 67.264320 255 255 255
184.194321 -86.756630 67.260666 255 255 255
184.108261 -86.707336 67.256821 255 255 255
184.017395 -86.655281 67.252762 255 255 255
183.921249 -86.600204 67.248466 255 255 255
183.819275 -86.541801 67.243912 255 255 255
183.710876 -86.479706 67.239067 255 255 255
183.595337 -86.413528 67.233910 255 255 255
183.471863 -86.342796 67.228394 255 255 255
183.349533 -86.272728 67.228592 255 255 255
183.224136 -86.200905 67.231888 255 255 255
183.090363 -86.124275 67.235413 255 255 255
182.947205 -86.042274 67.239197 255 255 255
182.851578 -85.987495 67.272942 255 255 255
182.851227 -85.987289 67.356468 255 255 255
182.773849 -85.942970 67.403023 255 255 255
182.579437 -85.831604 67.400398 255 255 255
182.414490 -85.737129 67.417908 255 255 255
182.237015 -85.635468 67.436829 255 255 255
182.051865 -85.529404 67.459763 255 255 255
181.863968 -85.421783 67.488876 255 255 255
181.661194 -85.305626 67.520309 255 255 255
181.436615 -85.176987 67.552841 255 255 255
180.918854 -84.880402 67.510178 255 255 255
180.531540 -84.658546 67.523178 255 255 255
180.041260 -84.377708 67.526497 255 255 255
179.465500 -84.047897 67.530396 255 255 255
178.776352 -83.653152 67.534454 255 255 255
178.345505 -83.406357 67.612968 255 255 255
178.345505 -83.406364 67.777603 255 255 255
178.035934 -83.229034 67.898010 255 255 255
178.035934 -83.229034 68.067451 255 255 255
178.035934 -83.229034 68.236282 255 255 255
178.035934 -83.229034 68.404610 255 255 255
178.035934 -83.229034 68.572533 255 255 255
176.245346 -82.203362 68.670181 255 255 255
176.245346 -82.203369 68.873634 255 255 255
176.245331 -82.203362 69.076981 255 255 255
176.245361 -82.203369 69.280327 255 255 255
176.245346 -82.203362 69.483810 255 255 255
176.245346 -82.203362 69.687546 255 255 255
176.245346 -82.203369 69.891663 255 255 255
176.245361 -82.203369 70.096283 255 255 255
176.245346 -82.203369 70.301544 255 255 255
176.245346 -82.203362 70.507561 255 255 255
176.245331 -82.203362 70.714478 255 255 255
176.245346 -82.203362 70.922409 255 255 255
176.245346 -82.203362 71.131500 255 255 255
176.245361 -82.203369 71.341888 255 255 255
176.383514 -82.282501 71.519722 255 255 255
177.171051 -82.733620 71.519722 255 255 255
177.434021 -82.884254 71.639290 255 255 255
177.434021 -82.884254 71.830811 255 255 255
177.434021 -82.884254 72.024139 255 255 255
177.434021 -82.884254 72.219421 255 255 255
177.434036 -82.884254 72.416809 255 255 255
177.434021 -82.884262 72.616455 255 255 255
176.770889 -82.504402 73.097549 255 255 255
176.770737 -82.504311 73.317497 255 255 255
176.770599 -82.504227 73.540413 255 255 255
186.273346 -87.949379 67.340637 255 255 255
186.246857 -87.934807 67.340378 255 255 255
186.220291 -87.920197 67.340126 255 255 255
186.193634 -87.905540 67.339867 255 255 255
186.166870 -87.890823 67.339615 255 255 255
186.139984 -87.876045 67.339355 255 255 255
186.112946 -87.861183 67.339096 255 255 255
186.085770 -87.846230 67.338837 255 255 255
186.058395 -87.831184 67.338570 255 255 255
186.030838 -87.816025 67.338310 255 255 255
186.003067 -87.800758 67.338043 255 255 255
185.975052 -87.785355 67.337769 255 255 255
185.946793 -87.769814 67.337502 255 255 255
185.918167 -87.754074 67.336906 255 255 255
185.889038 -87.738060 67.335571 255 255 255
185.859543 -87.721848 67.334221 255 255 255
